-285.935822 143.372742 2589 123 124 119
-280.864258 143.317352 2588 129 130 125
-261.322388 143.48349 2591 141 141 136
-256.355499 143.48349 2591 142 142 138
-251.194595 143.372742 2589 143 144 139
-230.270187 142.708206 2577 146 148 140
-225.767365 142.985092 2582 143 144 136
-220.903259 143.040466 2583 146 148 140
-205.809357 142.874344 2580 149 150 143
-200.70787 142.763565 2578 145 146 139
-195.38623 142.486694 2573 143 144 137
-140.801132 142.154419 2567 156 154 148
-135.933212 142.209793 2568 157 156 149
-86.874252 142.486694 2573 126 125 119
-61.898121 141.766785 2560 34 38 35
-56.923889 141.600647 2557 27 33 30
-51.98151 141.489899 2555 26 33 32
-47.083652 141.489899 2555 25 32 31
-42.185795 141.489899 2555 27 35 33
-37.302532 141.545258 2556 28 34 34
-32.40276 141.545258 2556 29 36 35
-27.492226 141.489899 2555 30 37 37
-22.585526 141.434509 2554 27 35 33
-17.689587 141.434509 2554 33 40 38
-12.793646 141.434509 2554 36 43 41
-7.900799 141.489899 2555 40 48 45
-3.005292 141.600647 2557 47 54 51
1.896399 141.600647 2557 48 54 52
6.792772 141.489899 2555 49 56 53
11.686053 141.434509 2554 52 59 55
16.581993 141.434509 2554 57 64 60
21.486343 141.489899 2555 67 74 69
26.384199 141.489899 2555 73 81 77
31.2943 141.545258 2556 86 93 89
36.194077 141.545258 2556 98 106 102
41.07777 141.489899 2555 100 107 103
45.939636 141.379135 2553 102 110 105
50.83366 141.379135 2553 96 104 100
55.771343 141.489899 2555 138 145 140
60.71669 141.600647 2557 139 147 143
65.644043 141.656021 2558 141 148 146
70.520073 141.600647 2557 142 149 145
85.225143 141.600647 2557 169 177 172
90.021095 141.434509 2554 166 174 169
94.91703 141.434509 2554 173 180 176
99.773895 141.379135 2553 174 182 177
104.831909 141.600647 2557 177 185 180
109.690681 141.545258 2556 179 186 181
124.195343 141.323761 2552 195 200 196
128.834534 141.04686 2547 189 195 190
133.717056 141.04686 2547 193 198 194
158.25383 141.157639 2549 195 200 196
163.012177 141.04686 2547 197 203 199
168.290207 141.379135 2553 196 201 197
298.310638 140.382339 2535 173 176 171
379.119263 139.717804 2523 164 167 161
383.651428 139.60704 2521 161 164 158
388.4841 139.60704 2521 163 167 161
393.00473 139.496292 2519 164 167 161
397.675659 139.440903 2518 161 165 159
411.992767 139.385544 2517 148 152 145
416.486572 139.27478 2515 158 162 154
420.470154 138.997894 2510 159 163 155
436.637634 139.551682 2520 153 156 151
440.242096 139.164032 2513 152 155 150
444.705231 139.053284 2511 57 60 54
448.265594 138.665634 2504 21 22 15
453.065704 138.665634 2504 24 25 18
457.865784 138.665634 2504 125 126 117
462.296326 138.554886 2502 143 144 135
482.82843 138.94252 2509 145 149 138
487.24939 138.831757 2507 142 146 134
558.667664 138.665634 2504 138 138 124
587.468201 138.665634 2504 129 129 113
947.509155 90.819336 1640 22 22 24
948.33429 90.597832 1636 22 22 24
-401.749542 123.011543 2147 96 74 30
-397.63382 123.011543 2147 101 77 33
-393.334778 122.954247 2146 108 81 36
-389.220978 122.954247 2146 114 86 40
-385.286621 123.011543 2147 118 89 41
-381.52594 123.126129 2149 118 89 39
-377.230774 123.06884 2148 122 91 40
-372.939423 123.011543 2147 126 93 41
-368.8237 123.011543 2147 129 96 44
-364.707947 123.011543 2147 129 97 45
-360.424255 122.954247 2146 126 94 41
-356.310425 122.954247 2146 126 94 41
-352.360748 123.011543 2147 130 97 44
-348.245026 123.011543 2147 129 97 43
-344.129303 123.011543 2147 131 99 44
-340.171906 123.06884 2148 131 101 46
-336.210693 123.126129 2149 130 100 46
-332.554749 123.298012 2152 136 109 53
-324.130768 147.648239 2577 76 74 70
-284.168762 147.419052 2573 146 147 143
-279.34491 147.476349 2574 143 144 139
-239.59111 147.304459 2571 153 154 147
-234.662582 147.304459 2571 153 154 147
-229.555344 147.189865 2569 155 157 149
-224.543213 147.132568 2568 156 157 150
-219.363861 146.960693 2565 157 158 151
-214.446838 146.960693 2565 156 157 150
-209.693176 147.075287 2567 157 159 151
-164.954391 146.674225 2560 157 156 149
-140.033234 146.273148 2553 168 166 159
-86.063919 146.043991 2549 168 168 160
-56.857109 146.33046 2554 137 142 137
-51.900131 146.158569 2551 139 144 141
-47.009941 146.158569 2551 138 146 142
-42.136265 146.215866 2552 155 162 158
-27.438425 146.101273 2550 163 170 166
-22.532467 145.986694 2548 161 169 165
-17.648029 145.986694 2548 166 173 169
-12.783628 146.215866 2552 171 179 174
11.663176 146.043991 2549 192 198 192
16.543037 145.986694 2548 193 199 193
21.461115 146.215866 2552 196 201 195
26.35322 146.215866 2552 192 199 192
31.25757 146.273148 2553 193 200 193
36.094952 146.043991 2549 193 199 193
40.94915 145.929382 2547 196 202 195
45.777691 145.757507 2544 196 201 195
50.754017 146.043991 2549 194 199 193
128.379288 145.413742 2538 191 195 186
253.470322 144.611618 2524 178 181 173
258.411102 144.6689 2525 179 182 174
366.810486 143.523026 2505 157 161 153
372.354218 143.809494 2510 164 166 159
377.316071 143.866791 2511 166 168 161
381.977386 143.809494 2510 164 167 159
386.789001 143.809494 2510 166 169 161
391.600586 143.809494 2510 165 167 159
395.938385 143.637604 2507 165 167 159
415.658539 143.809494 2510 161 165 154
419.800079 143.580307 2506 161 165 155
423.587402 143.236542 2500 161 165 155
433.34552 143.293839 2501 157 161 150
437.964661 143.236542 2500 156 158 148
442.402863 143.121964 2498 101 102 92
447.370483 143.17926 2499 25 24 16
452.522888 143.293839 2501 20 20 8
456.402954 143.007355 2496 64 64 53
461.187714 143.007355 2496 81 81 70
465.972473 143.007355 2496 90 88 77
470.945831 143.064651 2497 88 86 75
475.732513 143.064651 2497 78 77 66
480.711609 143.121964 2498 76 74 62
485.500183 143.121964 2498 76 74 64
490.092529 143.064651 2497 77 75 64
499.665863 143.064651 2497 74 75 60
556.659729 142.950073 2495 140 140 126
949.820129 94.192352 1644 23 23 25
951.812256 94.077759 1642 23 23 25
-402.123779 127.245705 2149 98 73 30
-398.004211 127.245705 2149 99 75 31
-393.518097 127.127274 2147 104 78 32
-389.402344 127.127274 2147 111 82 36
-385.645508 127.245705 2149 116 87 39
-381.703491 127.304909 2150 117 88 38
-377.582001 127.304909 2150 121 91 40
-373.286804 127.245705 2149 126 94 42
-368.8237 127.127274 2147 129 96 44
-364.707947 127.127274 2147 130 99 45
-360.592224 127.127274 2147 126 95 40
-356.476501 127.127274 2147 127 94 40
-352.360748 127.127274 2147 128 96 42
-348.407227 127.186485 2148 130 98 43
-344.449829 127.245705 2149 133 101 45
-340.647034 127.36412 2151 138 107 52
-336.680054 127.42334 2152 144 114 59
-332.8638 127.541756 2154 147 121 64
-327.027679 151.640884 2561 83 82 75
-292.319336 151.463242 2558 121 121 117
-287.752808 151.640884 2561 141 142 138
-283.285217 151.877716 2565 149 150 146
-278.368195 151.877716 2565 154 155 150
-272.918091 151.581665 2560 158 159 154
-262.38382 151.167175 2553 158 159 153
-228.751144 151.581665 2560 161 162 155
-223.843689 151.581665 2560 162 163 156
-218.765213 151.463242 2558 162 163 156
-213.778 151.404022 2557 161 162 155
-164.310043 150.989548 2550 164 162 156
-144.18927 150.39743 2540 139 138 131
-139.429871 150.515854 2542 171 170 164
-100.248817 150.219788 2537 182 183 174
-95.799042 150.871124 2548 179 181 171
-90.700516 150.515854 2542 182 183 174
-85.793816 150.456635 2541 171 173 163
-80.763565 150.160583 2536 187 189 179
-46.917801 150.752686 2546 191 197 190
-27.298544 150.219788 2537 189 194 188
-22.435192 150.219788 2537 189 194 189
1.880082 150.101379 2535 191 197 191
21.242466 149.568466 2526 183 189 183
40.756222 150.101379 2535 182 187 181
45.579754 149.982956 2533 184 189 183
93.950768 149.68689 2528 195 198 192
98.718704 149.568466 2526 191 194 188
103.396973 149.331619 2522 193 196 190
242.730972 148.798721 2513 176 180 172
247.64682 148.857925 2514 183 187 179
252.466095 148.857925 2514 183 187 179
257.080658 148.739502 2512 183 187 179
261.479065 148.50267 2508 181 185 177
266.286835 148.50267 2508 167 171 163
299.701935 148.384232 2506 180 184 176
304.505859 148.384232 2506 174 178 170
308.939514 148.206604 2503 179 182 174
366.517609 148.206604 2503 170 173 165
370.870758 148.028961 2500 168 171 163
375.36261 147.910553 2498 170 173 165
380.151215 147.910553 2498 170 173 165
384.939789 147.910553 2498 169 171 163
389.728394 147.910553 2498 166 170 162
394.990814 148.088181 2501 166 170 162
417.287323 147.496063 2491 166 170 160
421.893036 147.436844 2490 160 164 153
426.323608 147.31842 2488 160 162 153
431.439545 147.436844 2490 163 165 155
436.388 147.496063 2491 162 163 156
440.454742 147.259216 2487 139 140 130
445.043243 147.200012 2486 30 29 20
449.808807 147.200012 2486 21 22 12
454.940125 147.31842 2488 55 54 45
459.894287 147.37764 2489 66 66 57
464.852325 147.436844 2490 64 64 53
469.62558 147.436844 2490 70 69 58
474.208313 147.37764 2489 69 67 57
478.787231 147.31842 2488 69 67 57
483.556641 147.31842 2488 71 70 59
488.129791 147.259216 2487 70 70 57
498.46521 147.496063 2491 69 71 58
520.87323 147.081573 2484 143 145 133
523.942139 146.607895 2476 141 143 130
558.517212 146.963165 2482 140 140 126
562.821228 146.844742 2480 141 142 128
566.888733 146.667099 2477 139 141 127
1320.530396 168.279327 2842 30 30 32
1311.981445 166.502975 2812 30 30 32
-398.189423 131.426392 2150 98 71 28
-393.884644 131.365265 2149 101 72 28
-389.765076 131.365265 2149 109 78 33
-385.824951 131.426392 2150 116 85 39
-381.881042 131.487518 2151 116 84 36
-377.757629 131.487518 2151 121 89 37
-373.46051 131.426392 2150 124 92 39
-369.167236 131.365265 2149 129 94 42
-365.047668 131.365265 2149 130 98 43
-360.928101 131.365265 2149 126 93 38
-356.808533 131.365265 2149 127 93 37
-352.688965 131.365265 2149 128 94 38
-348.569397 131.365265 2149 128 94 39
-344.770416 131.487518 2151 128 96 40
-340.805389 131.54866 2152 131 99 42
-336.99295 131.670914 2154 141 110 55
-333.018341 131.73204 2155 145 118 61
-326.261475 156.183472 2555 88 90 82
-320.860504 155.93895 2551 97 97 93
-271.745422 155.816696 2549 162 162 158
-266.85907 155.816696 2549 160 160 156
-261.972717 155.816696 2549 159 160 155
-212.440323 155.327667 2541 166 167 160
-207.569305 155.327667 2541 166 168 160
-202.937592 155.511047 2544 165 167 159
-198.060822 155.511047 2544 161 162 155
-168.335739 155.083145 2537 171 172 165
-163.407959 155.022018 2536 172 171 164
-143.451294 154.471863 2527 173 173 166
-138.716827 154.594116 2529 171 170 164
-85.422409 154.655258 2530 186 187 180
-80.508781 154.53299 2528 185 186 179
-51.41185 154.471863 2527 188 193 187
-46.512383 154.288483 2524 183 189 183
-41.607906 154.043961 2520 170 176 171
-36.820927 154.227356 2523 182 188 184
-31.997091 154.288483 2524 177 182 177
-27.190943 154.471863 2527 186 191 187
-22.337917 154.410736 2526 188 193 189
-17.481798 154.288483 2524 190 195 191
11.525908 153.982834 2519 189 194 186
16.374231 154.166214 2522 187 192 185
21.217239 154.227356 2523 191 197 188
40.531139 154.105087 2521 186 191 185
45.345825 154.043961 2520 185 190 184
88.470222 153.432678 2510 194 198 190
93.430466 153.6772 2514 184 188 179
98.249733 153.6772 2514 119 122 114
103.068993 153.6772 2514 168 172 163
107.931168 153.738312 2515 192 196 186
126.760635 153.188156 2506 193 196 188
155.770432 153.371536 2509 192 195 189
160.580109 153.371536 2509 192 195 189
189.21167 153.188156 2506 181 185 177
193.860748 153.065903 2504 188 191 183
212.890945 152.943649 2502 187 191 183
217.600189 152.882523 2501 187 191 183
232.632507 153.310425 2508 189 193 185
237.534927 153.371536 2509 185 188 180
242.344604 153.371536 2509 176 180 172
256.364288 153.127045 2505 188 192 184
260.332245 152.638 2497 188 192 184
265.118896 152.638 2497 181 185 177
269.797485 152.576874 2496 182 186 178
293.603577 152.515747 2495 182 186 178
298.506012 152.576874 2496 181 185 177
303.290771 152.576874 2496 179 182 174
307.828644 152.45462 2494 181 185 177
374.761566 152.45462 2494 172 174 166
378.629395 152.087845 2488 171 173 165
383.090607 151.965591 2486 170 173 165
387.700165 151.904465 2485 170 173 165
391.832123 151.659943 2481 170 173 165
395.629028 151.293167 2475 169 172 164
411.021729 151.721069 2482 166 170 161
415.612122 151.659943 2481 163 167 156
420.368134 151.659943 2481 166 170 159
424.438721 151.415436 2477 165 168 159
429.187042 151.415436 2477 164 165 158
433.935394 151.415436 2477 166 167 160
438.506622 151.354309 2476 165 166 159
442.715973 151.170914 2473 109 109 100
447.456635 151.170914 2473 24 25 16
452.197296 151.170914 2473 26 26 16
456.383667 150.987534 2470 71 71 60
476.67038 151.415436 2477 79 79 66
481.030029 151.293167 2475 75 77 63
485.578247 151.232056 2474 74 77 62
494.863281 151.170914 2473 124 126 112
499.401947 151.109787 2472 131 133 120
522.884094 151.048676 2471 145 147 134
526.126221 150.620773 2464 142 145 131
555.816895 150.987534 2470 147 145 132
560.551819 150.987534 2470 146 146 132
565.0578 150.926407 2469 144 144 130
588.245911 150.804153 2467 136 135 121
1330.752686 175.072189 2864 29 29 31
1325.978394 173.727356 2842 30 30 32
962.246277 101.473404 1660 22 22 24
-398.374634 135.610931 2151 97 72 28
-394.251251 135.610931 2151 98 72 27
-390.309204 135.673981 2152 107 78 30
-386.183899 135.673981 2152 114 83 35
-382.058563 135.673981 2152 115 84 35
-377.933258 135.673981 2152 119 88 37
-373.807922 135.673981 2152 124 90 40
-369.682617 135.673981 2152 127 94 40
-365.557281 135.673981 2152 129 95 40
-361.096069 135.547882 2150 127 92 38
-356.974579 135.547882 2150 127 91 36
-352.853088 135.547882 2150 128 92 35
-348.893829 135.610931 2151 127 91 34
-344.930695 135.673981 2152 127 92 35
-341.122101 135.800064 2154 126 92 35
-337.149414 135.863113 2155 131 98 42
-333.327393 135.989197 2157 146 115 59
-329.65036 136.178329 2160 166 136 79
-318.72229 159.757355 2534 145 146 141
-294.434296 159.757355 2534 159 160 153
-289.690979 159.820404 2535 144 145 138
-284.60672 159.694321 2533 161 162 155
-270.466125 159.946487 2537 168 169 162
-264.869904 159.505188 2530 169 170 163
-259.917206 159.442139 2529 167 168 163
-240.430054 159.379089 2528 166 168 160
-235.677139 159.442139 2529 173 174 167
-206.507355 159.379089 2528 170 171 163
-167.539505 159.189941 2525 177 178 171
-106.294807 110.581848 1754 169 170 163
-142.826859 158.622543 2516 182 182 176
-80.190323 158.748627 2518 190 191 184
-41.558376 158.685593 2517 181 186 182
-36.733364 158.685593 2517 190 195 191
-31.908354 158.685593 2517 189 194 190
-27.05106 158.49646 2514 187 192 188
-22.222956 158.433411 2513 184 189 185
-17.405611 158.433411 2513 191 196 192
-12.558211 158.05513 2507 191 197 193
11.512181 158.622543 2516 189 195 188
16.257364 157.865997 2504 188 194 187
35.415249 157.676865 2501 189 194 188
40.338211 158.181213 2509 190 196 189
45.129894 158.118179 2508 191 197 190
49.897827 157.992081 2506 194 199 193
69.085953 157.929047 2505 186 191 185
73.799477 157.739914 2502 192 197 189
78.564308 157.676865 2501 196 201 192
83.35865 157.676865 2501 193 198 189
88.188248 157.739914 2502 197 203 194
92.984505 157.739914 2502 180 185 176
97.819839 157.802948 2503 150 156 147
102.536011 157.676865 2501 181 187 178
107.330353 157.676865 2501 196 201 192
126.65947 157.865997 2504 194 198 189
131.459564 157.865997 2504 195 199 191
136.205231 157.802948 2503 192 195 187
145.160828 157.109451 2492 192 195 189
150.599747 157.802948 2503 194 197 192
155.087509 157.487732 2498 194 197 192
159.748108 157.361618 2496 193 196 190
164.532852 157.361618 2496 180 184 178
169.317612 157.361618 2496 188 191 186
173.683838 156.983353 2490 184 188 182
183.671875 157.361618 2496 192 195 189
188.456635 157.361618 2496 183 187 179
212.210236 157.235535 2494 189 193 185
216.556122 156.920319 2489 193 196 188
220.705002 156.478989 2482 191 195 187
254.522141 156.79422 2487 187 191 183
259.289642 156.79422 2487 187 191 183
264.375671 156.983353 2490 186 189 181
269.040833 156.920319 2489 188 192 184
273.592163 156.79422 2487 185 188 180
291.956085 156.415939 2481 177 181 173
296.712097 156.415939 2481 181 185 177
301.468079 156.415939 2481 182 186 178
305.977264 156.289856 2479 182 186 178
310.604065 156.226807 2478 181 185 177
375.890106 155.722458 2470 167 170 162
382.320099 156.415939 2481 170 174 166
385.984009 155.97464 2474 166 170 162
390.252808 155.785507 2471 168 172 164
394.989624 155.785507 2471 169 173 165
399.564697 155.722458 2470 167 171 163
418.504364 155.722458 2470 167 169 159
423.067902 155.659393 2469 169 170 161
427.627655 155.596344 2468 169 171 160
432.358734 155.596344 2468 169 171 160
436.381378 155.344177 2464 168 170 158
440.567749 155.155045 2461 142 142 131
445.466339 155.218079 2462 33 34 22
450.185913 155.218079 2462 23 25 13
455.275024 155.344177 2464 60 61 50
460.558533 155.53331 2467 77 77 66
468.873718 155.155045 2461 79 79 66
474.168671 155.344177 2464 78 79 65
479.280823 155.470261 2466 74 76 62
484.008057 155.470261 2466 72 75 60
488.338928 155.344177 2464 64 66 51
492.66214 155.218079 2462 82 84 70
496.977661 155.091995 2460 104 107 92
524.845093 154.965912 2458 146 148 134
547.958374 154.839813 2456 147 147 133
553.341553 155.028946 2459 149 149 136
558.055359 155.028946 2459 149 149 136
563.684692 155.281128 2463 139 139 126
1385.930054 204.961014 3251 61 61 63
-398.559845 139.799301 2152 96 71 27
-394.434509 139.799301 2152 100 74 26
-390.671936 139.929214 2154 106 77 28
-386.542786 139.929214 2154 112 81 33
-382.236084 139.864243 2153 114 84 34
-377.933258 139.799301 2152 117 85 34
-373.981628 139.864243 2153 123 89 37
-369.854401 139.864243 2153 126 91 37
-365.727142 139.864243 2153 128 93 38
-361.599915 139.864243 2153 124 88 34
-357.306671 139.799301 2152 124 87 31
-353.345459 139.864243 2153 124 87 31
-349.218201 139.864243 2153 126 89 32
-345.251251 139.929214 2154 128 91 33
-341.280487 139.994186 2155 126 91 34
-337.462311 140.1241 2157 126 93 34
-333.636475 140.254013 2159 143 111 53
-329.65036 140.318985 2160 162 132 73
-327.659821 164.225189 2528 160 161 152
-322.941406 164.290146 2529 161 162 155
-317.967621 164.225189 2528 161 161 157
-294.201904 164.485031 2532 166 170 162
-288.891022 164.225189 2528 167 171 163
-283.932587 164.160233 2527 168 172 164
-279.088409 164.160233 2527 174 176 168
-274.461273 164.290146 2529 173 175 167
-269.186798 164.030304 2525 173 174 167
-264.660553 164.225189 2528 174 175 168
-235.024811 163.835403 2522 178 180 170
-229.642578 163.445633 2516 178 180 170
-210.51741 163.575562 2518 170 172 162
-205.690475 163.575562 2518 174 176 165
-200.783768 163.510605 2517 169 171 159
-195.958755 163.510605 2517 155 157 146
-190.981873 163.380661 2515 169 171 161
-186.08667 163.31572 2514 176 177 168
-181.195313 163.250748 2513 178 180 170
-176.377975 163.250748 2513 176 177 168
-171.35582 163.055862 2510 178 180 170
-166.676926 163.185776 2512 181 183 174
-161.732635 163.055862 2510 176 177 169
-106.294807 113.944214 1754 167 168 161
-141.918579 162.406235 2500 189 190 183
-137.345551 162.666092 2504 182 183 176
-128.102493 163.120834 2511 192 193 186
-36.412296 162.081421 2495 194 198 194
-31.692841 162.406235 2500 191 196 191
-17.336349 162.60112 2503 190 196 189
-12.528155 162.471207 2501 192 198 191
16.211918 162.211349 2497 195 198 193
20.981771 162.081421 2495 193 196 191
25.754284 162.016464 2494 194 198 192
30.535206 162.016464 2494 196 200 194
35.344444 162.146378 2496 196 200 194
40.145283 162.211349 2497 196 200 194
44.931953 162.211349 2497 195 198 193
49.678802 162.081421 2495 195 198 193
68.810158 162.081421 2495 191 197 190
73.563499 162.016464 2494 195 200 193
78.313011 161.951492 2493 198 204 195
83.09201 161.951492 2493 195 200 191
87.871017 161.951492 2493 195 200 191
92.575699 161.821579 2491 199 203 194
102.126038 161.821579 2491 197 201 193
106.901207 161.821579 2491 198 202 194
111.541885 161.626694 2488 191 196 187
125.799561 161.561722 2487 193 197 189
130.567062 161.561722 2487 184 188 180
135.334564 161.561722 2487 192 196 188
140.102066 161.561722 2487 193 197 189
144.578308 161.236908 2482 194 198 189
154.032074 161.171951 2481 192 195 187
159.108078 161.496765 2486 195 199 190
163.873657 161.496765 2486 190 194 186
168.571411 161.431793 2485 196 199 191
173.26532 161.366837 2484 196 199 191
177.668747 161.042023 2479 195 199 191
182.715256 161.30188 2483 188 192 184
187.399582 161.236908 2482 191 195 187
220.260406 160.912109 2477 192 195 187
225.008728 160.912109 2477 189 193 185
234.126709 160.652252 2473 190 193 185
243.608047 160.652252 2473 189 193 184
286.274017 160.652252 2473 184 188 178
290.897034 160.58728 2472 179 183 172
295.635773 160.58728 2472 183 187 177
300.496002 160.652252 2473 183 187 177
305.236664 160.652252 2473 186 190 179
309.475952 160.392395 2469 186 190 179
313.190857 159.872711 2461 186 190 179
365.233521 159.937653 2462 171 175 164
370.103363 160.002625 2463 175 179 169
374.82486 160.002625 2463 174 178 168
388.515533 159.807739 2460 172 176 165
393.071442 159.742767 2459 168 172 162
397.623505 159.677811 2458 168 172 162
416.301697 159.612854 2457 169 171 159
420.840332 159.547882 2456 166 168 156
424.682068 159.223083 2451 170 172 160
429.380585 159.223083 2451 164 166 155
434.256134 159.28804 2452 164 165 155
438.956543 159.28804 2452 171 170 161
443.476044 159.223083 2451 126 125 116
447.991669 159.158112 2450 29 28 17
452.503479 159.093155 2449 26 26 15
467.158997 159.28804 2452 79 79 66
482.045319 159.547882 2456 75 75 59
486.555237 159.482925 2455 76 76 60
491.061279 159.417969 2454 73 73 57
495.36145 159.28804 2452 73 74 57
499.042206 158.963226 2447 88 89 72
503.321289 158.833298 2445 130 130 113
508.00827 158.833298 2445 149 149 132
512.695251 158.833298 2445 151 152 135
517.382263 158.833298 2445 147 150 133
522.496338 158.963226 2447 146 149 133
573.391541 158.768341 2444 146 146 131
578.076599 158.768341 2444 149 147 131
1393.703003 213.336838 3284 38 38 40
1392.750977 212.232483 3267 61 60 63
-399.115448 144.125244 2155 95 71 27
-394.984406 144.125244 2155 98 72 26
-390.853333 144.125244 2155 104 74 28
-386.72226 144.125244 2155 110 79 32
-382.591187 144.125244 2155 114 84 34
-378.460114 144.125244 2155 118 86 33
-374.155334 144.058365 2154 124 89 35
-370.026184 144.058365 2154 127 92 35
-366.066895 144.125244 2155 130 93 37
-361.935852 144.125244 2155 123 87 30
-357.804779 144.125244 2155 123 87 28
-353.673706 144.125244 2155 123 87 27
-349.542633 144.125244 2155 125 89 27
-345.41156 144.125244 2155 127 92 30
-341.597198 144.259003 2157 128 92 32
-337.618744 144.325882 2158 131 96 36
-333.791016 144.459641 2160 142 109 48
-329.955566 144.593399 2162 160 129 69
-326.104462 168.268738 2516 174 178 168
-320.515228 167.867462 2510 175 178 169
-288.091095 168.603119 2521 177 178 171
-277.542175 168.0681 2513 177 178 171
-267.267853 167.666824 2507 173 175 167
-262.462006 167.666824 2507 176 177 170
-252.749481 167.59993 2506 182 183 176
-195.569489 168.001205 2512 162 163 154
-190.678131 167.934341 2511 176 178 168
-185.420502 167.533066 2505 181 182 173
-180.402176 167.332428 2502 183 184 175
-176.027039 167.733704 2508 180 182 172
-166.079758 167.399292 2503 184 186 176
-141.407669 166.596741 2491 194 195 188
-136.632507 166.596741 2491 194 195 188
-93.61837 166.529861 2490 184 185 177
-74.585213 166.663635 2492 191 195 187
-50.659084 166.529861 2490 193 196 191
-45.996403 166.931137 2496 195 198 193
-41.178623 166.797379 2494 197 201 196
-12.458026 166.329224 2487 196 200 194
16.179455 166.663635 2492 196 199 193
20.897676 166.195465 2485 192 195 190
25.661345 166.195465 2485 199 202 196
30.412771 166.128586 2484 199 202 196
35.160362 166.061722 2483 197 202 196
39.920197 166.061722 2483 196 202 195
44.680031 166.061722 2483 197 203 196
49.419956 165.994827 2482 195 200 194
54.177872 165.994827 2482 197 202 196
58.912045 165.927948 2481 197 203 196
63.616726 165.794189 2479 195 200 194
68.424049 165.927948 2481 198 202 194
82.892036 166.329224 2487 199 202 194
125.293732 165.660446 2477 196 200 192
130.042068 165.660446 2477 195 198 190
134.681564 165.526672 2475 192 196 187
139.820389 165.994827 2482 196 200 192
148.794739 165.392914 2473 194 197 189
153.5354 165.392914 2473 194 198 189
158.788071 165.927948 2481 193 196 189
163.280396 165.660446 2477 196 199 194
168.028732 165.660446 2477 197 201 195
182.273743 165.660446 2477 194 197 191
186.493546 165.192276 2470 197 201 193
190.609085 164.657242 2462 197 201 193
195.249329 164.590363 2461 187 190 182
214.206985 164.657242 2462 194 198 189
219.282257 164.924759 2466 193 196 188
223.555298 164.590363 2461 190 194 186
228.551239 164.791 2464 191 195 187
233.463989 164.924759 2466 189 193 185
238.191238 164.924759 2466 190 194 186
242.721466 164.791 2464 190 194 186
256.578918 164.590363 2461 192 195 187
261.190399 164.523483 2460 187 191 183
284.769135 164.523483 2460 186 190 179
289.955597 164.791 2464 185 189 178
294.200623 164.523483 2460 182 186 176
298.916382 164.523483 2460 180 184 174
303.508698 164.456604 2459 186 190 179
307.971832 164.322845 2457 183 187 177
312.554565 164.255966 2456 181 185 175
317.262634 164.255966 2456 182 186 176
321.184143 163.854691 2450 183 187 177
325.747711 163.787811 2449 182 186 176
330.847137 163.988449 2452 178 182 171
335.684418 164.055328 2453 180 184 173
363.898376 164.055328 2453 173 177 167
368.600677 164.055328 2453 169 173 163
386.778259 163.787811 2449 171 175 164
391.31308 163.720932 2448 170 173 163
396.005798 163.720932 2448 170 174 164
409.581482 163.520294 2445 170 174 161
414.09903 163.453415 2444 168 172 160
418.784119 163.453415 2444 167 169 158
422.949371 163.252777 2441 164 165 156
427.628693 163.252777 2441 169 171 161
432.308014 163.252777 2441 171 172 163
436.987335 163.252777 2441 171 173 163
441.304779 163.119019 2439 152 151 142
445.980286 163.119019 2439 33 34 22
450.286224 162.985245 2437 22 23 11
464.872742 163.185883 2440 76 76 64
469.935059 163.319656 2442 71 71 58
479.886353 163.520294 2445 68 68 54
485.167877 163.720932 2448 75 75 61
489.060211 163.453415 2444 78 78 65
493.543243 163.38652 2443 80 80 66
497.818542 163.252777 2441 78 77 63
501.88031 163.052139 2438 67 66 53
506.3461 162.985245 2437 59 58 44
511.227417 163.052139 2438 66 64 50
516.324219 163.185883 2440 66 65 49
521.001648 163.185883 2440 91 91 75
525.032715 162.985245 2437 107 107 91
532.621826 162.450226 2429 113 115 98
569.872375 162.450226 2429 143 144 128
595.103027 161.714539 2418 148 149 69
1381.863892 198.899521 2974 26 25 28
977.06012 112.357498 1680 24 24 26
-399.671051 148.462708 2158 93 68 29
-395.350952 148.393906 2157 96 69 26
-391.216064 148.393906 2157 105 76 29
-387.081146 148.393906 2157 112 81 33
-382.946228 148.393906 2157 113 83 32
-378.81134 148.393906 2157 119 86 33
-374.502747 148.325104 2156 124 89 35
-370.541534 148.393906 2157 127 93 36
-366.406616 148.393906 2157 129 93 36
-362.271729 148.393906 2157 123 87 29
-357.970795 148.325104 2156 123 87 28
-354.001923 148.393906 2157 123 87 27
-349.704834 148.325104 2156 125 89 30
-345.732117 148.393906 2157 126 90 32
-341.913971 148.531494 2159 130 94 36
-337.931671 148.600296 2160 135 101 42
-333.945526 148.669098 2161 142 108 49
-329.955566 148.737885 2162 153 122 62
-319.365936 172.059875 2501 180 184 174
-314.823181 172.197464 2503 181 185 177
-266.948029 172.266266 2504 176 177 170
-262.147949 172.266266 2504 181 182 175
-257.347839 172.266266 2504 182 183 176
-252.245178 172.059875 2501 182 183 176
-247.055084 171.784698 2497 179 181 173
-140.726456 170.546356 2479 196 197 190
-136.02916 170.615158 2480 197 198 190
-131.328003 170.683945 2481 197 198 191
-126.316917 170.339966 2476 193 195 187
-121.5214 170.271164 2475 194 195 187
-88.488304 170.615158 2480 196 198 190
-83.632935 170.408768 2477 195 197 189
-17.170118 170.546356 2479 196 201 195
-12.407934 170.408768 2477 196 202 195
16.062588 170.202377 2474 196 201 195
20.80517 170.202377 2474 198 203 197
35.075401 170.408768 2477 196 202 195
44.572067 170.408768 2477 197 203 196
49.22084 170.064789 2472 191 196 190
53.937759 169.996002 2471 197 200 195
63.462749 170.133575 2473 198 201 196
68.065521 169.789597 2468 199 202 195
72.767105 169.72081 2467 199 202 195
82.292091 169.858398 2469 199 203 194
86.884102 169.583206 2465 199 202 194
91.535103 169.445618 2463 200 204 195
124.534988 169.376816 2462 193 197 189
134.355072 169.858398 2469 199 202 194
138.693726 169.376816 2462 197 201 193
148.012543 169.239227 2460 193 197 191
152.914536 169.445618 2463 185 188 182
157.892059 169.72081 2467 196 199 194
162.291626 169.376816 2462 196 199 193
166.739853 169.101639 2458 197 201 195
171.033249 168.688858 2452 197 201 195
185.587494 169.101639 2458 193 196 191
190.221985 169.032837 2457 199 202 194
194.931976 169.032837 2457 188 192 184
213.771957 169.032837 2457 193 196 188
218.481949 169.032837 2457 194 198 189
246.038956 168.551254 2450 192 195 187
250.735535 168.551254 2450 190 194 186
255.432098 168.551254 2450 190 194 186
260.234863 168.620056 2451 188 192 184
264.60907 168.413666 2448 189 193 185
287.837433 168.276077 2446 188 192 182
292.526337 168.276077 2446 185 189 178
297.458252 168.413666 2448 185 189 178
302.521301 168.620056 2451 186 190 179
306.718414 168.344864 2447 181 185 174
311.281952 168.276077 2446 178 182 172
315.970856 168.276077 2446 183 187 177
329.902649 168.207275 2445 183 187 177
334.452789 168.138489 2444 183 187 177
338.860352 168.0009 2442 183 187 178
362.118195 167.932098 2441 181 185 175
389.87442 167.79451 2439 173 176 166
394.064606 167.58812 2436 172 176 165
413.082428 167.725708 2438 170 174 161
416.899261 167.381729 2433 170 174 162
421.389954 167.312927 2432 171 173 162
426.052032 167.312927 2432 170 171 161
430.1828 167.106537 2429 172 174 164
435.018127 167.175339 2430 170 172 162
439.676392 167.175339 2430 170 170 161
444.151764 167.106537 2429 129 130 119
448.253754 166.900146 2426 22 24 12
452.717651 166.831345 2425 26 28 16
458.120697 167.106537 2429 68 69 57
462.96756 167.175339 2430 76 76 63
467.818207 167.244125 2431 73 73 59
484.457764 166.556168 2421 73 73 59
490.916962 167.175339 2430 78 79 63
495.983063 167.312927 2432 80 80 64
500.233429 167.175339 2430 82 82 66
504.891663 167.175339 2430 83 83 67
510.178955 167.381729 2433 80 80 64
527.096008 166.831345 2425 68 68 53
531.74469 166.831345 2425 70 70 55
593.872437 166.005798 2413 123 127 59
1386.045654 205.219772 2983 26 26 28
978.223328 115.715599 1682 27 26 29
-399.856293 152.670227 2159 93 65 24
-395.900818 152.740952 2160 99 70 25
-391.578796 152.670227 2159 104 74 27
-387.440063 152.670227 2159 111 78 30
-383.301331 152.670227 2159 114 81 31
-378.986938 152.599533 2158 117 85 32
-375.023865 152.670227 2159 121 87 33
-370.885132 152.670227 2159 125 91 34
-366.746399 152.670227 2159 127 93 36
-362.607635 152.670227 2159 122 87 30
-358.13681 152.528809 2157 121 85 29
-354.001923 152.528809 2157 122 85 28
-350.029205 152.599533 2158 125 89 30
-346.212982 152.740952 2160 127 91 33
-342.389038 152.88237 2162 129 93 35
-338.244568 152.88237 2162 135 99 40
-334.100067 152.88237 2162 140 107 46
-330.108215 152.953094 2163 151 120 60
-236.05513 175.510666 2482 185 186 179
-188.324081 175.369247 2480 187 189 178
-140.158783 174.591385 2469 193 195 187
-135.535492 174.732834 2471 196 197 189
-130.904526 174.874252 2473 195 197 189
-126.163857 174.874252 2473 196 197 190
-121.226799 174.591385 2469 196 197 190
-116.446625 174.520676 2468 196 197 190
-54.898052 174.379257 2466 198 201 195
-35.959877 174.237823 2464 200 204 198
-31.236464 174.237823 2464 201 206 200
-12.322776 173.954971 2460 198 203 196
20.662209 173.742828 2457 201 204 198
34.806351 173.813553 2458 201 206 200
39.470032 173.60141 2455 200 205 199
44.194183 173.672119 2456 201 206 200
48.981903 173.954971 2460 201 205 199
53.763138 174.167114 2463 195 200 193
142.772537 173.318558 2451 196 200 192
147.290543 173.106415 2448 196 200 194
151.73494 172.823563 2444 186 190 182
170.893753 173.247833 2450 198 201 194
189.834885 173.389267 2452 197 200 192
249.507431 172.399277 2438 189 193 184
254.285248 172.470001 2439 192 196 185
258.960724 172.470001 2439 189 193 183
263.528168 172.399277 2438 190 194 184
268.091705 172.328552 2437 192 196 185
287.484375 172.752838 2443 190 194 184
291.449982 172.328552 2437 188 192 181
314.679077 172.257858 2436 186 190 179
332.810638 171.974991 2432 183 187 177
338.02774 172.257858 2436 181 185 175
360.338013 171.762863 2429 180 184 174
396.933838 171.479996 2425 176 178 169
415.871124 171.621429 2427 171 173 161
419.31073 171.126434 2420 175 177 165
423.949799 171.126434 2420 172 174 162
428.588867 171.126434 2420 173 175 162
433.227936 171.126434 2420 171 173 160
437.867004 171.126434 2420 173 173 162
442.14035 170.985001 2418 152 153 140
446.775574 170.985001 2418 42 45 32
451.224152 170.914291 2417 28 29 17
456.611877 171.197159 2421 59 58 47
461.062317 171.126434 2420 75 75 62
465.701385 171.126434 2420 74 74 60
479.024017 170.914291 2417 76 76 63
483.657349 170.914291 2417 77 77 64
488.492676 170.985001 2418 76 76 63
493.127899 170.985001 2418 77 77 64
498.998291 171.409302 2424 79 79 66
524.270325 170.56073 2412 77 75 61
528.674805 170.490021 2411 77 76 61
532.411926 170.207169 2407 70 69 54
537.249146 170.277878 2408 79 77 63
541.865173 170.277878 2408 77 76 61
546.708191 170.348587 2409 85 83 68
550.639587 170.136444 2406 82 80 64
554.328735 169.853607 2402 108 106 90
580.50238 169.429321 2396 140 141 123
585.828064 169.641464 2399 136 137 117
590.42688 169.641464 2399 123 124 105
1441.659302 240.213425 3397 41 41 43
1442.202881 239.223434 3383 33 32 35
-400.041473 156.881607 2160 94 66 27
-396.084106 156.954239 2161 96 69 24
-391.941528 156.954239 2161 101 72 27
-387.619507 156.881607 2160 107 76 30
-383.478851 156.881607 2160 113 79 31
-379.338196 156.881607 2160 115 83 30
-375.371246 156.954239 2161 120 85 33
-371.400452 157.026855 2162 123 89 35
-367.086121 156.954239 2161 126 89 36
-362.943542 156.954239 2161 122 85 29
-358.634949 156.881607 2160 119 83 27
-354.33017 156.808975 2159 121 84 27
-350.353638 156.881607 2160 124 88 29
-346.533539 157.026855 2162 125 89 31
-342.389038 157.026855 2162 129 93 34
-338.244568 157.026855 2162 132 96 37
-334.254608 157.099487 2163 138 105 45
-330.260834 157.172134 2164 149 119 57
-266.53891 178.380188 2456 221 223 213
-261.830841 178.380188 2456 218 219 209
-257.122742 178.380188 2456 209 211 199
-139.534348 178.525467 2458 192 193 186
-134.932144 178.670715 2460 195 197 189
-130.2164 178.670715 2460 198 199 192
-125.500648 178.670715 2460 197 198 191
-120.735802 178.598083 2459 198 199 192
-97.087631 178.45282 2457 197 198 191
-92.37764 178.45282 2457 198 199 192
-59.262611 178.017044 2451 187 191 183
-54.67543 178.380188 2456 199 202 194
-35.799339 178.162292 2453 202 205 200
-31.160402 178.525467 2458 198 203 197
-12.302739 178.380188 2456 200 205 198
-7.588478 178.23494 2454 196 200 194
20.662209 178.45282 2457 202 205 200
25.32057 178.089676 2452 199 203 197
29.996492 177.944412 2450 191 194 189
34.664745 177.799149 2448 201 204 198
39.421799 178.089676 2452 201 204 198
151.73494 177.508621 2444 200 204 195
156.420013 177.508621 2444 202 206 198
294.298981 175.910767 2422 186 190 179
298.448151 175.620239 2418 185 189 178
331.031616 175.692871 2419 178 182 171
335.529999 175.620239 2418 182 186 176
339.602509 175.329727 2414 186 190 179
367.367889 175.329727 2414 181 184 171
403.718353 175.0392 2410 179 181 171
408.338226 175.0392 2410 173 174 164
412.95813 175.0392 2410 173 175 165
417.578033 175.0392 2410 178 180 169
422.898682 175.329727 2414 174 176 166
426.817841 175.0392 2410 172 174 164
431.079712 174.893936 2408 172 174 164
435.69577 174.893936 2408 174 175 166
440.311829 174.893936 2408 170 170 159
445.112671 174.966568 2409 70 69 58
449.357239 174.821304 2407 28 27 16
453.971405 174.821304 2407 46 46 34
458.585541 174.821304 2407 78 78 65
462.237488 174.45816 2402 78 78 64
472.427979 174.821304 2407 81 79 64
477.042114 174.821304 2407 82 80 65
481.456146 174.748672 2406 84 81 67
486.06839 174.748672 2406 81 79 65
490.884552 174.821304 2407 82 80 65
508.706299 174.603409 2404 82 80 66
518.569458 174.821304 2407 76 74 59
527.797729 174.821304 2407 78 76 61
531.969482 174.676056 2405 73 71 56
536.579834 174.676056 2405 68 66 51
541.4151 174.748672 2406 67 65 48
545.800415 174.676056 2405 62 60 45
549.037598 174.240265 2399 52 50 35
553.174866 174.095001 2397 87 84 68
557.304382 173.949738 2395 76 73 58
561.426331 173.804474 2393 52 49 33
564.830994 173.44133 2388 44 42 28
569.88562 173.586578 2390 37 34 22
574.467163 173.586578 2390 37 34 22
579.048706 173.586578 2390 40 38 24
584.118652 173.731857 2392 40 37 22
588.950134 173.804474 2393 41 38 23
592.793396 173.586578 2390 42 40 25
608.510864 118.6054 1633 101 102 91
1453.286865 247.596939 3409 35 35 37
-400.411865 161.171341 2162 91 66 26
-396.267395 161.171341 2162 93 68 27
-392.122894 161.171341 2162 99 69 25
-387.978394 161.171341 2162 105 74 30
-383.833923 161.171341 2162 110 79 30
-379.689423 161.171341 2162 114 81 31
-375.718658 161.245895 2163 119 84 32
-371.572266 161.245895 2163 121 87 32
-367.425873 161.245895 2163 125 88 35
-363.111481 161.171341 2162 122 85 29
-358.96698 161.171341 2162 119 83 25
-354.494293 161.022263 2160 120 84 26
-350.678009 161.171341 2162 123 87 26
-346.533539 161.171341 2162 125 89 28
-342.547424 161.245895 2163 128 92 31
-334.409149 161.32045 2164 136 101 38
-330.413422 161.395004 2165 148 117 54
-271.136505 183.013733 2455 192 191 182
-266.430359 183.013733 2455 224 223 213
-261.724182 183.013733 2455 225 225 213
-257.018036 183.013733 2455 222 221 208
-252.209106 182.939178 2454 209 209 195
-247.303146 182.790085 2452 207 207 193
-242.404861 182.640991 2450 205 205 192
-237.708282 182.640991 2450 201 201 189
-138.853134 182.342804 2446 190 191 184
-134.16423 182.342804 2446 197 198 191
-129.475327 182.342804 2446 199 200 193
-124.735405 182.26825 2445 189 190 183
-119.999313 182.193695 2444 198 199 192
-115.031143 181.746414 2438 197 198 191
-82.721313 182.640991 2450 200 202 194
-77.992889 182.566452 2449 196 198 190
-73.298233 182.566452 2449 200 201 194
-68.603577 182.566452 2449 199 203 195
53.173771 181.597336 2436 198 204 197
57.84351 181.597336 2436 198 204 197
62.487583 181.522781 2435 199 205 198
127.522079 181.0755 2429 196 200 192
132.123978 181.000946 2428 200 204 195
361.38797 179.286362 2405 177 181 168
365.998291 179.286362 2405 177 181 168
370.454498 179.211807 2404 171 175 163
375.062897 179.211807 2404 176 181 168
379.197479 178.988174 2401 174 179 166
398.104858 179.211807 2404 178 180 169
402.880768 179.286362 2405 180 182 172
411.244629 178.91362 2400 178 179 170
415.672089 178.839081 2399 178 180 170
419.920502 178.689972 2397 172 174 164
424.515472 178.689972 2397 170 172 160
429.110474 178.689972 2397 172 174 162
433.705444 178.689972 2397 172 174 162
438.483276 178.764526 2398 172 171 160
442.895386 178.689972 2397 160 160 147
447.490356 178.689972 2397 52 52 39
452.085327 178.689972 2397 35 34 21
456.680328 178.689972 2397 58 58 45
461.275299 178.689972 2397 85 86 71
465.675934 178.615433 2396 83 81 67
545.604675 177.720856 2384 51 48 34
550.405457 177.79541 2385 56 52 38
556.373596 178.242691 2391 56 53 38
564.357971 177.869965 2386 51 48 35
567.978027 177.571762 2382 59 56 42
572.303894 177.497223 2381 60 58 44
576.868225 177.497223 2381 56 53 38
581.432495 177.497223 2381 59 57 42
585.750671 177.422684 2380 58 57 42
590.809143 177.571762 2382 58 56 41
594.37561 177.273575 2378 56 56 42
608.883545 121.810356 1634 101 103 93
-400.597107 165.392303 2163 89 63 24
-396.450684 165.392303 2163 91 66 22
-392.485657 165.468765 2164 96 70 26
-388.337341 165.468765 2164 104 73 29
-384.188995 165.468765 2164 108 77 28
-380.04068 165.468765 2164 112 80 29
-376.066071 165.545242 2165 117 83 31
-371.915833 165.545242 2165 121 87 32
-367.595734 165.468765 2164 122 88 33
-363.447388 165.468765 2164 123 87 28
-359.299072 165.468765 2164 118 82 24
-354.986633 165.392303 2163 120 85 23
-350.84024 165.392303 2163 122 87 22
-346.693848 165.392303 2163 124 89 23
-330.718658 165.698166 2167 144 113 48
-326.564575 165.698166 2167 149 123 59
-284.790222 187.414032 2451 193 194 187
-279.977448 187.337555 2450 193 196 188
-275.39325 187.414032 2451 189 193 185
-270.694733 187.414032 2451 184 187 176
-265.887726 187.337555 2450 153 155 145
-261.084564 187.261108 2449 202 202 189
-256.389893 187.261108 2449 220 221 205
-251.592468 187.184631 2448 209 207 192
-246.899719 187.184631 2448 206 204 187
-242.20697 187.184631 2448 210 208 193
-222.797104 186.649384 2441 207 206 193
-218.028442 186.572906 2440 212 211 198
-213.351028 186.572906 2440 206 205 192
-138.115158 186.037674 2433 198 200 192
-133.615738 186.267075 2436 199 200 192
-128.945999 186.267075 2436 200 201 193
-124.225235 186.190598 2435 200 201 193
-119.508316 186.114136 2434 201 202 195
-115.031143 186.419983 2438 202 203 196
-82.012276 185.731812 2429 204 205 197
-30.805441 185.808289 2430 200 203 198
-26.147205 185.808289 2430 203 206 200
-21.471283 185.65535 2428 202 205 200
-16.816881 185.65535 2428 203 206 201
-12.167489 185.731812 2429 201 204 199
-7.51117 185.731812 2429 200 203 197
-2.854851 185.731812 2429 200 203 197
53.08646 185.961212 2432 203 208 201
57.606056 185.502426 2426 202 208 200
62.051327 184.890701 2418 202 208 200
94.419792 184.737778 2416 203 207 199
112.805138 184.508377 2413 205 209 201
173.29689 184.890701 2418 201 205 196
213.769073 183.820206 2404 197 201 193
218.559158 183.973129 2406 201 204 196
223.078613 183.896667 2405 200 204 195
245.516129 183.437897 2399 196 200 189
378.565735 183.284958 2397 153 156 144
413.419586 182.443848 2386 88 86 76
417.993469 182.443848 2386 74 72 62
422.744476 182.520309 2387 72 72 61
427.141266 182.443848 2386 75 75 64
431.715149 182.443848 2386 73 72 62
435.191925 181.985062 2380 62 60 50
440.493408 182.290909 2384 62 61 49
445.063446 182.290909 2384 52 50 40
449.633514 182.290909 2384 38 36 24
464.121094 182.596771 2388 47 46 35
516.010742 181.526276 2374 82 83 70
520.561584 181.526276 2374 96 97 84
533.764221 181.373337 2372 100 102 87
538.311279 181.373337 2372 100 102 86
542.858276 181.373337 2372 122 122 108
547.636169 181.449814 2373 130 130 116
561.283081 181.449814 2373 133 133 119
565.593567 181.373337 2372 135 135 120
570.140625 181.373337 2372 143 143 128
574.687683 181.373337 2372 151 151 134
579.234741 181.373337 2372 144 144 128
583.535706 181.29689 2371 143 146 129
609.256165 125.01915 1635 102 101 92
-400.967499 169.69548 2165 87 64 24
-396.633972 169.617096 2164 90 65 23
-392.667023 169.69548 2165 96 68 25
-388.516785 169.69548 2165 101 72 25
-384.366547 169.69548 2165 106 75 29
-380.216309 169.69548 2165 111 79 30
-376.239746 169.773849 2166 117 81 32
-372.087585 169.773849 2166 120 85 33
-367.935455 169.773849 2166 122 88 33
-363.783295 169.773849 2166 123 86 30
-359.631134 169.773849 2166 118 82 24
-355.31488 169.69548 2165 119 84 24
-351.002441 169.617096 2164 120 85 24
-346.854126 169.617096 2164 123 87 24
-331.176514 170.087387 2170 141 110 47
-326.865997 170.008987 2169 150 118 60
-274.60675 191.563843 2444 198 199 192
-270.032104 191.642227 2445 199 201 191
-231.299789 190.623276 2432 202 192 171
-226.637726 190.623276 2432 187 178 156
-222.066925 190.70166 2433 168 155 137
-217.313583 190.623276 2432 161 148 130
-212.65152 190.623276 2432 149 135 119
-207.989441 190.623276 2432 156 145 128
-203.327377 190.623276 2432 152 141 127
-198.420227 190.388138 2429 160 151 138
-194.003235 190.623276 2432 185 178 165
-189.263306 190.544891 2431 199 195 180
-184.527222 190.466522 2430 185 183 169
-137.547485 189.917847 2423 203 204 196
-132.902664 189.917847 2423 202 203 195
-127.993187 189.525925 2418 204 205 197
-123.613037 189.917847 2423 199 200 193
-118.870026 189.761093 2421 202 203 196
-113.993126 189.369171 2416 199 200 193
-67.875237 189.917847 2423 200 203 195
-63.15213 189.682709 2420 203 207 199
-58.464706 189.525925 2418 201 205 197
-39.841225 189.134033 2413 201 204 196
-35.230171 189.212418 2414 204 207 200
-30.665993 189.604309 2419 203 206 201
34.084171 188.663742 2407 204 207 200
38.778702 189.055649 2412 202 206 198
62.000004 189.369171 2416 206 211 202
89.453911 188.663742 2407 205 208 200
94.068054 188.663742 2407 205 209 201
98.395218 188.115067 2400 206 209 201
102.953033 188.036697 2399 204 208 199
107.776001 188.428604 2404 195 198 190
112.524635 188.663742 2407 207 210 202
116.99279 188.428604 2404 208 212 204
121.601181 188.428604 2404 202 206 198
149.189468 188.35022 2403 203 207 199
195.091736 188.193451 2401 203 207 199
213.591232 188.271835 2402 200 204 193
217.832443 187.958313 2398 201 205 194
222.336563 187.879929 2397 201 205 194
294.128204 186.782593 2383 110 112 102
298.320313 186.547455 2380 100 102 91
356.880005 186.155533 2375 62 63 53
361.128448 185.998779 2373 64 64 55
365.677399 185.998779 2373 55 57 47
371.00647 186.390686 2378 57 59 49
375.565002 186.390686 2378 63 64 55
379.484161 186.077164 2374 67 70 60
384.035065 186.077164 2374 94 97 87
388.91333 186.233917 2376 99 101 91
393.302429 186.155533 2375 95 97 87
397.687714 186.077164 2374 95 98 87
402.069153 185.998779 2373 100 103 92
406.618134 185.998779 2373 107 110 100
411.167084 185.998779 2373 133 136 126
416.066437 186.155533 2375 130 133 123
420.796356 186.233917 2376 128 131 122
425.172058 186.155533 2375 131 133 123
429.362976 185.998779 2373 143 145 133
433.911926 185.998779 2373 155 157 145
438.460907 185.998779 2373 154 155 143
442.823181 185.920395 2372 146 148 135
446.804413 185.685257 2369 59 60 50
458.873474 185.058212 2361 141 144 129
463.595734 185.136581 2362 166 169 154
468.916351 185.450104 2366 172 175 160
474.25235 185.763641 2370 171 173 160
478.593536 185.685257 2369 167 169 156
483.134827 185.685257 2369 171 173 160
500.665222 185.450104 2366 167 169 156
505.200745 185.450104 2366 168 171 156
509.951721 185.528488 2367 169 171 157
515.141235 185.763641 2370 169 171 157
518.807434 185.450104 2366 157 159 145
522.900574 185.29335 2364 157 159 144
527.432251 185.29335 2364 166 168 152
531.963989 185.29335 2364 166 168 153
536.495728 185.29335 2364 167 167 151
540.798584 185.214966 2363 164 164 148
544.866821 185.058212 2361 159 159 143
549.625427 185.136581 2362 159 158 142
554.857239 185.371719 2365 163 162 147
558.917786 185.214966 2363 161 162 146
563.447571 185.214966 2363 160 160 144
567.977356 185.214966 2363 156 157 141
572.749451 185.29335 2364 161 161 144
578.013733 185.528488 2367 157 158 140
609.628723 128.231781 1636 101 102 91
1471.0802 247.136185 3153 28 27 30
1464.475342 245.019882 3126 27 26 29
1018.473999 137.715912 1757 37 37 39
-401.337891 174.006317 2167 86 62 22
-396.817261 173.845718 2165 89 64 22
-392.848389 173.92601 2166 93 65 22
-388.875671 174.006317 2167 99 70 25
-384.721588 174.006317 2167 105 74 28
-380.567535 174.006317 2167 109 78 29
-376.413452 174.006317 2167 116 81 31
-372.259369 174.006317 2167 119 84 32
-368.105316 174.006317 2167 121 87 32
-363.951233 174.006317 2167 122 85 29
-359.79715 174.006317 2167 118 82 24
-355.478973 173.92601 2166 119 83 25
-351.164642 173.845718 2165 121 85 25
-347.014374 173.845718 2165 122 86 25
-343.022522 173.92601 2166 126 88 28
-331.48175 174.407791 2172 140 107 43
-258.312744 194.562668 2423 157 157 142
-253.877289 194.723251 2425 139 137 121
-249.228638 194.723251 2425 138 134 117
-239.832397 194.64296 2424 190 182 164
-235.185669 194.64296 2424 199 190 173
-230.53894 194.64296 2424 232 220 204
-225.985382 194.723251 2425 224 210 194
-221.336731 194.723251 2425 204 190 174
-216.68808 194.723251 2425 204 191 175
-212.039429 194.723251 2425 205 194 177
-198.338547 194.964142 2428 203 198 183
-193.444824 194.723251 2425 204 200 185
-188.796173 194.723251 2425 201 199 186
-159.776291 193.358185 2408 192 193 184
-136.809509 193.518784 2410 200 201 194
-132.244476 193.599091 2411 204 205 198
-127.622658 193.599091 2411 206 207 200
-123.000839 193.599091 2411 206 207 200
-118.379028 193.599091 2411 204 206 198
-113.945946 193.920273 2415 203 205 197
-67.427032 193.277893 2407 195 198 191
-62.812885 193.277893 2407 202 206 198
-58.126202 193.036987 2404 197 201 193
-35.142605 193.358185 2408 206 209 203
-30.437803 192.796097 2401 204 207 202
-25.835159 192.796097 2401 207 210 204
